1.82685 8.22744 1.89366
3.07031 12.55 -0.188302
1.20042 7.09496 2.78812
1.10601 6.9343 2.92922
1.1791 5.9858 2.87117
1.29043 7.43798 2.57662
1.0783 6.89069 2.93263
2.89489 12.5581 -0.181569
1.11072 7.02807 2.81739
1.20098 7.31684 2.66569
1.09174 5.83113 2.88026
2.10575 10.1632 1.00113
1.05638 6.26838 2.87281
1.0724 6.13208 2.84902
2.11603 10.177 0.888162
1.00889 6.26653 2.87397
0.888554 6.76555 3.01288
1.09199 7.40656 2.59077
0.964394 6.13129 2.85829
2.56074 12.7485 -0.206143
2.5336 12.8055 -0.193102
1.07019 7.39434 2.56552
1.05736 7.40149 2.59596
1.2427 7.90322 2.19548
1.15938 7.77413 2.32443
0.997921 7.59034 2.45082
0.786862 6.45906 2.8528
0.797362 6.1113 2.86074
2.23266 12.8277 -0.202967
2.22653 12.6764 -0.193382
0.890716 7.44383 2.5524
0.774338 5.92589 2.87432
0.767209 6.13971 2.85272
0.918331 7.65573 2.41233
0.697089 5.95711 2.8676
1.53768 10.0816 0.969122
0.674898 6.4829 2.84577
0.634819 6.19497 2.85311
0.76088 7.44359 2.45808
1.87843 12.3865 -0.204591
0.5924 6.04352 2.85868
1.52664 11.3515 0.317256
0.507457 5.8518 2.85424
0.404426 6.91992 2.9823
0.37061 6.94303 2.99475
0.292178 6.8709 2.99773
0.343502 6.1254 2.84954
0.33299 5.63967 2.89444
0.315441 6.30988 2.85914
1.33478 12.4654 -0.192888
0.222186 6.19802 2.87107
1.15249 12.9154 -0.168774
0.142752 6.57622 2.87279
0.116308 7.17823 2.76652
0.574502 10.0056 1.04928
0.489481 9.10689 1.28969
0.411123 9.21568 1.19777
-0.0135947 6.37866 2.84938
-0.0295069 6.37932 2.85291
-0.0371463 6.18007 2.85966
-0.0363424 5.90268 2.86522
0.267702 8.68543 1.5472
0.378833 9.35377 1.08954
0.65836 12.3715 -0.190912
-0.10845 6.26169 2.86034
0.426102 12.5858 -0.179688
0.22617 12.4236 -0.178121
-0.0269664 9.28166 1.15485
-0.0970802 9.17119 1.20711
-0.353368 6.3812 2.85696
-0.125044 9.36901 1.02284
-0.181864 9.42602 1.03565
-0.0930076 12.5254 -0.180388
-0.253938 9.45774 1.07682
-0.283675 12.8328 -0.173787
-0.372871 12.398 -0.18341
-0.469313 9.37908 1.13494
-0.498977 10.0478 0.995001
-0.593554 10.0875 1.05783
-0.58411 9.39154 1.14216
-0.621356 8.71635 1.59168
-0.630792 12.44 -0.141076
-0.837212 9.20624 1.24133
-0.863941 6.35969 2.88858
-0.882887 8.27427 1.89703
-0.888229 9.09828 1.33691
-0.909248 9.63501 0.997982
-0.932794 8.99344 1.39716
-0.95219 9.12821 1.33414
-0.962065 9.01306 1.37119
-1.02587 12.4254 -0.114237
-0.977827 8.34779 1.82328
-0.985445 8.967 1.39827
-0.96932 6.28415 2.91731
-1.04684 10.1108 0.964858
-1.18578 12.3857 -0.166968
-1.10432 9.22558 1.24436
-1.12913 9.13913 1.28095
-1.18147 9.21723 1.24814
-1.47311 12.4426 -0.155792
-1.52901 12.4175 -0.137175
-1.39475 9.53513 0.987089
-1.43526 10.1555 0.91968
-1.28141 7.08363 2.81368
-1.52132 9.53651 1.00072
-1.52412 9.53598 0.999069
-1.65443 9.38781 1.06272
-1.38845 6.26981 2.95294
-1.70362 9.66243 0.880626
-1.73494 10.1856 0.907866
-1.9297 12.4856 -0.149927
-1.41389 6.18071 2.92658
-1.78087 9.54084 0.877836
-1.4763 7.13358 2.85741
-1.74167 8.90838 1.36536
-1.61484 7.96689 2.14693
-1.49289 6.81788 3.11767
-2.13785 12.6144 -0.130461
-1.84802 9.17714 1.13837
-1.51666 6.14231 2.93024
-1.52204 6.07864 2.95024
-2.04237 10.0889 0.794757
-1.63781 6.14007 2.9296
-1.66241 6.19095 2.95077
-2.07105 9.09461 1.20823
3.36392 12.5181 -0.198275
2.60131 9.25351 0.996712
3.31886 12.3064 -0.209445
3.22919 12.8537 -0.190217
1.95012 8.28661 1.77113
1.84745 8.35964 1.76892
3.01241 12.8056 -0.184867
1.21117 7.0822 2.78386
1.03996 6.82554 3.05718
2.98041 12.5178 -0.202596
1.23531 7.56886 2.4708
0.989191 6.06581 2.86889
0.840512 6.73457 3.03941
1.29971 7.90965 2.13259
2.40119 12.7473 -0.168084
0.77495 5.75116 2.87714
2.14812 12.3276 -0.196067
2.11286 12.1754 -0.183938
0.639634 6.43595 2.84005
0.599979 5.75112 2.88009
0.600397 5.74904 2.87946
0.494669 7.07215 2.87852
0.391034 7.00526 2.98406
0.363911 6.84657 3.03243
0.375084 5.67395 2.88042
0.30551 7.13173 2.84405
0.251652 7.12458 2.90415
1.10614 12.783 -0.193228
0.18129 6.0144 2.86356
0.0476295 6.9051 2.91964
0.595752 10.1101 0.987751
0.0554522 6.16756 2.87399
-0.00821951 6.984 2.92028
0.381167 9.11866 1.25282
-0.123721 5.65531 2.85633
-0.150842 6.07284 2.88788
0.147535 12.5076 -0.164615
-0.495887 6.61359 2.92874
-0.484044 6.42015 2.8847
-0.304626 9.46606 1.0902
-0.60084 6.30561 2.87706
-0.615806 6.53261 2.91835
-0.682085 5.79869 2.88346
-0.757003 9.54031 1.0426
-0.864403 8.00403 2.25807
-0.948989 6.26554 2.8913
-1.02835 8.82966 1.54186
-1.05608 10.0193 0.970329
-1.20668 9.5927 0.988497
-1.34216 12.5283 -0.14185
-1.14695 6.24362 2.90283
-1.21018 7.09828 2.86198
-1.57227 9.87155 0.931063
-1.65222 10.1434 0.907815
-1.40159 6.27324 2.96024
-1.4756 6.17578 2.92116
-1.98978 10.074 0.860433
-1.55883 6.00958 2.93809
-1.56285 6.23055 2.96335
-2.00201 9.41771 0.974291
-2.32072 12.9883 -0.0991105
-1.61208 6.08077 2.92376
-1.69022 6.17742 2.9579
-1.70614 6.27224 3.01653
-1.88664 7.66245 2.29397
1.29873 7.2527 2.71318
1.98083 8.58206 1.57522
1.19231 6.35192 2.83202
2.92623 12.1455 -0.202723
1.13882 6.25755 2.85346
1.13704 5.81285 2.8743
1.35361 7.89457 2.30998
2.61076 12.743 -0.205653
1.21418 7.79811 2.3171
1.20074 7.85144 2.27845
2.45484 12.6529 -0.202967
2.44926 12.5466 -0.197062
0.882372 5.81373 2.88507
0.797605 5.69334 2.91776
1.10784 7.98894 2.08234
0.765583 5.96878 2.86643
0.726206 6.27774 2.87025
0.689813 6.22487 2.86654
0.505105 6.93564 3.03555
0.608755 6.50327 2.85181
0.59022 6.16906 2.84766
0.912789 8.16621 2.01008
0.923131 8.1713 1.92273
0.536143 5.97663 2.85896
0.724481 7.57189 2.32285
0.684826 7.56781 2.36991
0.342677 6.91502 2.98775
0.282489 6.4814 2.81983
0.254824 6.34522 2.85194
0.245532 7.18634 2.78074
0.135543 7.18067 2.76455
0.0496756 7.07933 2.89847
0.0597131 6.14046 2.8972
0.0270006 6.27342 2.85304
-0.0075035 6.3165 2.85176
-0.0360738 6.13884 2.89227
0.373969 10.0336 1.05059
-0.465362 7.4766 2.5984
-0.658713 6.84577 3.11587
-0.691758 6.96199 3.05948
-0.696884 8.51833 1.78426
-0.708719 12.5369 -0.172984
-0.710901 12.522 -0.150643
-0.857007 5.79433 2.88368
-0.886096 6.1491 2.86556
-0.93777 6.99425 2.9369
-0.968542 7.90092 2.18145
-0.979881 6.88902 3.07786
-1.10637 6.83428 3.0364
-1.26447 6.27832 2.92065
-1.3168 7.14091 2.90242
-1.34229 7.30687 2.69858
-1.41342 6.79433 3.19127
-1.49178 7.02204 2.93477
1.80778 8.16864 1.90442
1.46131 7.81981 2.35038
1.18353 6.07627 2.84322
1.16185 5.85721 2.87834
0.930953 6.86849 3.01611
1.03504 6.10841 2.85508
0.934791 5.62192 2.87966
0.92185 6.0804 2.85778
1.02511 7.42547 2.55295
1.02655 7.42431 2.55188
0.81212 6.40183 2.81457
0.751724 6.02317 2.86863
0.751724 6.02317 2.86863
0.670108 6.13588 2.84176
0.648995 5.65443 2.87671
0.509782 6.69154 2.9639
0.563413 5.65181 2.87086
0.436384 5.8894 2.87888
0.215655 7.18097 2.81051
0.767336 9.93433 1.01802
0.630637 9.95899 1.05151
0.552019 10.1447 1.02007
0.0154884 6.57396 2.86702
-0.284691 7.3701 2.58715
-0.285263 7.82071 2.20901
-0.487182 10.0631 1.02071
-0.641622 7.24864 2.75862
-0.736475 6.12755 2.85992
-0.736475 6.12755 2.85992
-0.749472 7.52894 2.47125
-1.32408 12.3566 -0.00553916
-1.15082 6.66076 3.12305
-1.37028 7.79037 2.26471
-1.37673 6.08648 2.88567
-1.5998 8.2902 1.7934
-1.60429 8.28782 1.76208
-1.98631 9.38664 0.998058
-1.70208 7.66277 2.44714
1.7064 7.81502 2.15351
1.46674 7.59841 2.42361
1.5497 7.71612 2.25827
1.20951 6.19832 2.83514
1.20951 6.19832 2.83514
1.12772 6.12559 2.85176
1.10152 5.98216 2.87668
1.09922 5.81406 2.87693
1.30917 7.73123 2.29321
0.966875 6.01125 2.86077
0.953321 6.10293 2.85998
1.2548 8.39871 1.69731
0.718514 5.73976 2.88627
1.32378 9.28499 1.0894
0.538472 6.38658 2.83536
0.528691 6.46386 2.84121
0.340249 5.94295 2.87079
0.0658547 6.02112 2.86765
0.0250292 7.18153 2.66022
0.207844 10.1391 1.02551
-0.257982 6.85522 2.9661
0.117872 10.1346 1.03104
0.113271 9.96815 1.03191
-0.269203 5.92915 2.87137
-0.280194 6.25345 2.8625
-0.281041 5.9806 2.88457
-0.340386 5.84448 2.87432
-0.380731 6.14313 2.83497
-0.459051 6.9519 2.98524
-0.486901 6.87472 3.05329
-0.447237 6.24669 2.86557
-0.471082 6.44832 2.87893
-0.318674 9.99044 1.01394
-0.65714 7.65653 2.42493
-0.707784 7.20879 2.79516
-0.686078 5.84085 2.89242
-0.603341 12.442 -0.120009
-0.781471 6.22366 2.87986
-0.968038 6.80515 3.12905
-1.01929 5.92334 2.91829
-1.0606 7.05361 2.85191
-1.28248 7.32593 2.67291
-1.58052 7.1632 2.76207
1.9993 8.37254 1.7092
1.90836 8.37199 1.74468
1.90117 8.37206 1.7519
0.91238 6.4076 2.85592
0.842121 5.9233 2.89089
0.842664 5.92083 2.88938
0.739063 6.90743 2.98705
0.808366 5.88834 2.88758
0.781926 6.16222 2.85562
0.771359 5.66343 2.87529
0.771359 5.66343 2.87529
0.744262 6.39752 2.8515
0.666429 6.34757 2.83925
0.649676 7.43551 2.37318
0.636458 7.44131 2.39136
0.282902 6.91183 2.99091
0.177334 5.78734 2.86209
-0.366003 7.61256 2.50802
-0.409776 6.2659 2.86991
-0.110803 12.0792 -0.136294
-0.842331 8.15507 1.99538
-1.56434 8.20505 1.97973
-2.12334 12.4733 -0.127192
1.4299 7.68483 2.39053
-0.257538 5.71685 2.89354
-0.417183 7.5922 2.48123
-0.742388 5.89058 2.89358
-0.742388 5.89058 2.89358
0.0788666 7.08857 2.91311
-1.63056 8.08869 1.99415
-1.5672 7.74807 2.41956
3.1618 12.2241 -0.144185
1.3627 7.77253 2.38828
0.854882 5.95413 2.88459
-0.612868 7.03863 2.96089
-1.20556 6.72471 3.15723
1.05118 8.22534 1.90986
-0.298252 6.67382 2.91641
-0.450643 6.36665 2.8683
-0.510209 7.46491 2.51006
-0.262679 12.1489 -0.137868
0.0443694 7.06594 2.92422
-0.0147689 6.19038 2.86693
0.400174 9.45888 1.06677
-0.910148 6.24131 2.8807
-0.879834 6.34359 2.8872
-0.988404 6.23099 2.88539
-1.81649 10.1625 0.886299
-0.924381 10.1156 0.993767
-0.910148 6.24131 2.8807
0.0473469 7.01153 2.91821
-0.57985 6.27248 2.86598
0.364332 6.40358 2.8369
-0.62188 6.52008 2.92007
-2.16327 10.0516 0.84007
-1.0883 6.75751 3.13008
1.0378 5.64228 2.93134
-0.0689361 5.73123 2.87185
-0.134073 5.94962 2.88313
-0.0910825 10.0837 1.00431
-1.51456 6.02682 2.91789
-1.64471 6.07129 2.93796
0.863536 5.67126 2.91851
-1.57998 6.0847 2.94399
0.888281 5.57449 2.91534
0.902392 5.58042 2.88449
0.810869 5.60739 2.88637
0.889561 5.85128 2.87717
0.844549 9.93685 1.03807
1.84546 7.45157 2.47952
2.5901 8.85417 1.3216
1.58119 6.38024 2.85103
3.44123 12.2367 -0.209369
2.39653 8.68369 1.47185
1.55536 7.0602 2.76919
1.55611 7.06027 2.76776
1.5338 5.51547 2.87426
1.54261 5.96604 2.831
1.52978 6.21226 2.81997
1.52621 6.23666 2.81338
2.22881 8.55502 1.63985
3.28841 12.2187 -0.192224
1.49143 6.31999 2.82203
1.69223 7.61955 2.41555
1.57068 7.57722 2.51228
3.07725 12.1409 -0.17064
1.19865 6.76256 3.06557
1.34832 5.59048 2.89074
3.02262 12.1568 -0.18165
1.53937 7.61319 2.44599
1.3177 6.28814 2.83031
1.28337 5.57907 2.88696
1.41335 7.5619 2.53431
1.41964 7.78924 2.40412
1.20823 7.06729 2.80449
2.78502 12.3573 -0.241437
1.43855 7.81941 2.31733
1.33117 7.52569 2.51179
1.17407 7.05468 2.81654
1.17527 7.05356 2.81092
1.26752 7.33712 2.62491
1.13851 5.99034 2.87154
1.08208 6.23706 2.85762
0.961217 6.83851 3.03719
1.03478 6.19146 2.87962
1.0505 5.62637 2.87975
1.87006 10.074 1.02489
1.90428 9.98588 0.954756
0.884086 6.7589 3.03116
0.969012 6.07539 2.85874
0.961277 6.08207 2.87208
2.31371 12.5124 -0.212747
0.931377 6.16635 2.85043
1.14478 7.84072 2.28217
1.23423 8.01692 2.03373
1.0379 7.70507 2.36993
1.05444 7.69547 2.33514
0.915544 7.28452 2.63182
1.43678 10.0945 1.02285
0.650975 6.95178 2.96701
0.684738 6.523 2.87647
0.702168 5.95141 2.86225
1.75353 12.2435 -0.180928
1.16442 8.93449 1.36175
1.64959 12.9595 -0.149022
1.67074 12.8166 -0.215677
0.947992 8.51954 1.68855
0.947197 8.51915 1.69008
0.451799 6.95047 3.03434
0.511568 5.76642 2.88883
0.405922 7.04341 2.97609
0.460758 5.61092 2.9144
1.01066 9.54465 1.06426
1.35446 12.4318 -0.194157
0.435054 5.82426 2.89075
0.438493 5.88968 2.86697
0.423352 6.09291 2.85743
0.944719 9.30963 1.08203
0.944507 9.30909 1.0831
0.386432 5.68954 2.88667
0.871388 9.2842 1.10766
0.821971 8.87721 1.29849
0.353552 6.52162 2.84008
0.347207 6.12654 2.8424
0.708646 8.80369 1.47439
0.304531 5.78469 2.90188
0.707456 9.10472 1.27225
0.231879 7.02645 2.93362
0.592209 8.61357 1.60388
0.23522 7.11472 2.89339
0.275452 5.8964 2.87327
0.704349 9.29184 1.11088
0.426239 7.9102 2.13714
0.221838 7.13429 2.85865
0.645192 9.36534 1.08867
0.155876 6.8882 2.96244
0.130215 5.63052 2.88755
0.497119 10.1102 1.02205
0.37871 9.06974 1.23886
0.0600173 5.68142 2.87052
0.275121 8.72792 1.55731
0.295925 9.04039 1.29235
0.297949 9.03916 1.27987
0.53208 12.4256 -0.200803
0.495837 12.5404 -0.203934
0.339683 10.9587 0.600233
-0.0310781 5.73468 2.88005
0.237099 10.1094 1.03314
0.210905 9.97466 1.06426
0.0725071 8.17565 1.9538
0.0792873 8.27702 1.84804
0.188361 10.0693 1.03948
-0.0783075 5.79856 2.86568
0.348339 12.7404 -0.166198
0.00219609 7.82621 2.19979
0.0148864 8.0085 2.05873
0.304252 12.3203 -0.205195
-0.128903 6.29221 2.84801
-0.15364 5.62883 2.8716
0.0325436 9.34456 1.12308
0.166445 12.5437 -0.167752
-0.0803178 8.89607 1.40976
-0.306554 6.93964 3.01362
-0.282932 6.47879 2.8747
-0.0188459 12.6346 -0.161542
-0.363383 6.75778 2.95205
-0.195829 10.05 1.02779
-0.151013 12.9346 -0.17341
-0.391606 6.02818 2.90284
-0.308367 9.17319 1.19124
-0.28446 12.8209 -0.15583
-0.436409 6.01986 2.90437
-0.373149 12.4153 -0.214061
-0.515508 6.62261 2.92478
-0.572524 6.74264 3.00563
-0.559471 6.17618 2.8638
-0.523489 12.0655 0.0143057
-0.607815 6.90351 3.1117
-0.559569 9.47041 1.02649
-0.556542 9.46991 1.02526
-0.587034 10.1062 0.992891
-0.667134 6.88803 3.12472
-0.657334 8.20514 1.9096
-0.684461 8.21902 1.99707
-0.70308 9.01338 1.38159
-0.737381 9.49872 1.03335
-0.784187 9.52382 1.0459
-0.763322 7.16439 2.84675
-0.891622 9.73473 0.997256
-0.904194 9.81127 0.994306
-0.887353 9.14982 1.27768
-0.909677 8.70726 1.57846
-0.880436 7.72496 2.40913
-0.854003 6.14886 2.87306
-0.941571 7.59071 2.54707
-1.02835 8.96746 1.40368
-0.917019 6.03717 2.90391
-0.934524 6.93058 2.99328
-0.942149 6.89989 3.03603
-1.06843 8.89444 1.4514
-1.05163 8.31134 1.86216
-1.00218 6.62121 3.0644
-1.22604 10.1726 0.961999
-1.23537 8.87751 1.50107
-1.31828 9.62237 0.982425
-1.29474 8.59893 1.68776
-1.3514 9.09666 1.3105
-1.16831 7.19256 2.77921
-1.14867 6.34166 2.92884
-1.14867 6.34166 2.92884
-1.42797 9.5877 0.898095
-1.20587 6.34142 2.94881
-1.2985 7.42454 2.5274
-1.24236 6.25204 2.9357
-1.32461 7.43005 2.48741
-1.24818 6.00785 2.93542
-1.46593 8.14174 2.09093
-1.3067 5.91035 2.93267
-1.48847 8.17836 2.03453
-2.02192 12.5995 -0.141579
-1.86369 9.66265 0.895631
-1.43998 6.02574 3.00343
1.58293 6.43179 2.88194
2.49733 8.77837 1.43299
1.79108 7.51247 2.47088
3.4288 12.0772 -0.155686
1.58778 6.06678 2.82894
1.89663 7.75112 2.26724
1.86259 7.75395 2.27359
1.34263 6.82619 3.06375
1.48128 5.55674 2.865
1.65801 7.6364 2.44096
3.03896 12.8473 -0.180654
1.90342 8.26054 1.79003
1.34816 7.25794 2.70799
2.9373 12.1632 -0.209289
1.16247 6.78241 3.02348
1.20496 5.95783 2.8641
1.24399 7.32631 2.64873
1.11778 6.3534 2.85379
1.04304 6.39763 2.86943
0.922139 6.81556 3.03918
1.02948 6.24514 2.86371
1.00894 6.11648 2.85582
0.993692 5.56846 2.89547
1.14462 7.61833 2.46538
1.21682 7.82482 2.27493
2.24826 12.473 -0.196481
2.25479 12.3947 -0.206469
2.23663 12.6049 -0.200446
1.03833 7.68514 2.33944
0.728068 6.28192 2.87615
1.84873 12.4796 -0.192471
0.777686 7.63515 2.40844
0.582076 6.45287 2.84219
0.458878 6.78684 3.01322
0.685252 7.76209 2.23051
0.65683 7.69512 2.26677
1.01484 10.0611 1.00314
1.22647 11.3746 0.251274
0.418574 7.13729 2.80196
0.413983 7.143 2.81682
0.99027 10.0383 0.9056
0.323085 6.89462 2.99455
0.353345 5.76311 2.87482
0.790432 9.31151 1.09002
0.290426 6.02097 2.86564
0.265627 7.21048 2.73615
0.259206 5.89984 2.87004
0.694305 10.0114 0.970283
0.657431 9.99922 1.05995
0.584362 10.0053 1.00959
0.110149 6.45273 2.84724
0.0487063 6.31259 2.84247
-0.0308641 6.00277 2.86063
0.152899 10.1436 1.0202
0.0405819 8.30016 1.84645
-0.0527177 9.33892 1.17303
-0.236663 5.76527 2.86578
-0.15543 10.0779 1.02444
-0.112729 12.6662 -0.162365
-0.227239 9.05886 1.35393
-0.366041 6.54771 2.89863
-0.231786 12.4454 -0.0896915
-0.431936 7.64239 2.36753
-0.58168 6.88406 3.11894
-0.515596 12.5941 -0.154266
-0.616172 7.15185 2.85219
-0.583894 9.63865 1.02829
-0.902751 7.72479 2.41128
-0.969998 9.35184 1.17404
-1.06095 6.78725 3.08196
-1.25135 8.94934 1.4196
-1.13268 5.94042 2.91916
-1.28472 8.05533 2.04423
-1.15658 6.41019 2.98504
-1.48726 10.1165 0.910789
-1.22087 5.84919 2.89879
-1.47349 8.79137 1.52904
-1.31555 7.08941 2.87218
-1.29618 6.05035 2.93086
-1.53922 8.31665 1.81434
-1.3425 6.10385 2.94296
-1.97832 12.6181 -0.0235221
-1.36634 7.08958 2.96076
-1.35952 6.06279 2.8976
-1.88657 9.54688 0.897465
-1.58972 7.75936 2.41503
-1.50341 7.09006 2.81821
-1.58988 7.64891 2.48006
-2.00601 9.53649 0.899384
-2.00201 9.41771 0.974291
2.03489 7.74533 2.24759
1.60612 6.14527 2.81446
1.38152 6.8236 3.04541
1.36676 6.80933 3.06886
2.28932 8.5447 1.58498
1.51009 5.92386 2.83371
1.507 6.23639 2.81363
1.507 6.23639 2.81363
1.29693 6.82131 3.02636
1.42448 6.25047 2.81405
1.13233 6.76992 3.06044
1.28213 5.56183 2.85917
1.11138 6.83841 3.01454
1.14364 6.0716 2.84872
0.98803 6.72907 3.0542
1.02572 5.54951 2.93576
0.889947 6.74392 3.04346
0.866156 5.76969 2.87966
2.02043 12.1864 -0.23913
0.769034 5.79366 2.88791
0.651953 6.33535 2.84529
1.53802 12.7854 -0.201837
1.44738 12.4413 -0.182971
0.438035 6.13035 2.84948
1.29716 12.9666 -0.203555
1.10936 12.9496 -0.176727
0.30279 6.35127 2.84182
0.465911 10.0959 1.03496
-0.0121073 5.736 2.88026
0.108684 10.0341 1.05726
0.0365993 9.40462 1.14371
-0.275408 6.76146 2.96411
-0.130443 8.98999 1.37307
-0.343241 6.92179 3.01321
-0.249642 8.68668 1.57922
-0.656518 6.32087 2.89309
-0.68206 8.97206 1.37204
-0.714603 9.1459 1.26251
-1.25473 5.90133 2.94195
-1.84284 10.0921 0.885267
1.5197 5.95375 2.82975
1.29709 6.78454 3.07391
1.44521 6.03076 2.81952
1.54536 7.6515 2.42924
1.34583 6.13823 2.8214
1.45446 7.57523 2.47593
1.25787 6.13552 2.832
1.24963 6.21986 2.82681
1.17696 6.08615 2.85308
1.07741 5.52266 2.9417
0.784747 5.69145 2.8951
0.624 5.74854 2.88878
0.234781 7.14305 2.83304
0.639382 9.9572 1.02297
0.15498 6.09315 2.87964
-0.40379 7.24296 2.67038
-0.386453 10.1117 0.830825
-1.11821 12.5594 -0.151655
-1.05827 9.25335 1.17398
-1.27631 7.42712 2.56112
-1.36549 7.35317 2.52168
-1.48263 8.29448 1.87299
-1.62424 8.19321 1.88766
1.29712 6.13917 2.82459
0.773762 5.71263 2.86875
1.93319 12.1147 -0.171866
0.672269 6.0429 2.86017
0.988952 9.97497 1.015
0.403201 6.56032 2.87066
0.29205 6.25583 2.88142
0.245579 6.01643 2.85633
0.241779 6.02573 2.86627
0.631744 10.1386 1.04341
0.105756 6.51316 2.84651
-0.281071 5.98024 2.88406
-0.194719 12.5703 -0.163856
-0.59831 7.78108 2.22981
-0.975941 7.66089 2.361
-1.00399 7.44295 2.40715
2.05938 8.21279 1.85008
1.48408 6.08164 2.81498
1.39184 6.08781 2.82211
1.29282 6.21744 2.8255
1.96473 8.64197 1.51101
0.916276 6.85117 3.05028
1.00104 6.19893 2.85073
1.29761 7.96302 2.12217
0.834141 5.56255 2.9282
0.834141 5.56255 2.9282
0.722256 5.97641 2.86885
0.626449 6.94071 2.97716
0.623251 6.94511 2.98502
0.236811 6.40554 2.83783
-0.101625 6.34653 2.8673
-0.426941 6.68906 2.95207
-0.463209 7.57843 2.41418
-0.612693 6.16948 2.86696
-0.846396 6.30535 2.8741
-0.898272 6.90196 3.09327
0.784668 6.7744 3.02371
1.04276 8.13034 2.05461
0.638022 5.98235 2.86331
0.381448 7.17147 2.74557
-0.276814 6.1942 2.86781
-0.417453 6.97119 2.97785
-0.751537 8.19323 1.9663
-0.829157 5.88182 2.89798
-0.965233 7.63363 2.38084
1.62635 7.66643 2.41172
1.36345 7.59871 2.47261
-0.532958 7.24938 2.8111
0.822427 6.80674 3.05413
0.829836 6.78987 3.03261
0.992218 6.69516 3.06929
0.0667142 12.6566 -0.166099
-0.946115 12.2218 -0.0897887
-1.54208 12.498 -0.134181
-1.39139 9.59837 0.993428
-1.40098 8.93006 1.48118
-1.40108 8.93172 1.46726
-1.26971 6.71521 3.16386
-1.73678 8.71542 1.49859
-1.01583 9.53614 1.02241
-0.302896 12.5559 -0.164448
-0.447821 12.4098 -0.15689
-1.20469 6.98717 2.95203
-2.23314 12.9857 -0.107559
-2.14118 12.9217 -0.113911
-1.77619 9.12157 1.24624
0.698775 12.548 -0.189148
-0.0967158 5.71116 2.87441
0.92717 5.66816 2.88492
-1.12885 5.9772 2.99875
1.93732 5.50508 2.89208
2.80113 8.68214 1.45309
1.88266 5.69729 2.84309
3.00835 9.34035 0.972676
1.83992 5.57109 2.87665
3.67599 12.8594 -0.212115
1.82944 5.53196 2.87741
1.66437 6.81311 3.03485
2.02494 7.57522 2.42347
1.65712 6.85371 3.01412
1.61713 6.80727 3.06686
1.53269 6.74911 3.08251
1.94659 7.6727 2.37935
2.73066 9.31307 0.978383
2.18507 8.20229 1.83678
3.19503 12.4027 -0.20258
3.11094 12.787 -0.182006
3.07768 12.8602 -0.17792
1.52528 5.49537 2.86431
3.06589 12.5441 -0.179185
1.5122 5.55182 2.87271
1.52054 5.9971 2.82476
1.51711 5.98431 2.82751
1.45328 6.42311 2.87122
1.32909 6.82416 3.03597
2.95687 12.4157 -0.189044
2.3304 9.96834 0.989229
2.29927 10.1944 1.0107
1.25287 6.74165 3.05814
1.4143 5.55245 2.84009
1.40058 5.76694 2.84944
1.21672 6.78093 3.05904
2.14141 9.41111 1.0823
1.30954 6.10965 2.82689
1.15334 6.77739 3.05339
1.3399 7.62938 2.43081
1.64596 8.426 1.75597
1.17067 5.52554 2.91586
1.15649 5.50261 2.91214
1.22131 7.57487 2.50641
1.10712 5.53108 2.8978
1.09596 6.08707 2.86097
1.04877 5.8475 2.87483
1.20702 7.86782 2.22207
0.959353 6.33685 2.87192
2.06499 12.4943 -0.200608
2.04361 12.6343 -0.176035
2.00479 12.2007 -0.168529
1.9722 12.395 -0.213043
0.850469 6.24048 2.87408
0.738033 6.89051 3.08069
1.80972 12.2569 -0.185983
0.814698 6.37086 2.84726
1.69007 12.181 -0.19318
1.38099 12.1707 -0.202795
0.537628 6.62745 2.91794
0.570272 5.8037 2.88795
0.516605 6.53865 2.87051
0.446205 6.92262 3.02579
0.516769 5.79175 2.88679
1.16512 12.6249 -0.194416
0.840091 10.0586 1.03365
0.42341 5.91889 2.88091
0.354476 6.87168 3.02894
1.01737 12.5703 -0.199662
0.385627 5.98332 2.86909
0.350524 6.28929 2.87387
0.358859 6.13132 2.83722
0.325103 6.45211 2.84116
0.431667 7.93918 2.07613
0.289608 6.02813 2.87113
0.58656 9.93497 1.02695
0.21686 7.01872 2.94414
0.757756 12.9436 -0.181416
0.51752 10.2631 1.02835
0.717942 12.4884 -0.189715
0.221788 5.95615 2.86865
0.202882 6.43456 2.84109
0.498977 9.36078 1.06199
0.445524 10.0671 1.04023
0.117945 6.42435 2.84737
0.33259 9.11537 1.2484
0.324157 10.169 1.02173
0.126445 10.0731 1.02224
0.0678879 8.55436 1.65321
0.196898 12.5262 -0.179545
0.0547397 10.0285 1.05545
0.0356901 9.18522 1.22767
0.0191511 9.18511 1.19781
-0.052929 8.53419 1.73283
0.046826 12.3403 -0.163909
-0.0043796 12.5823 -0.091457
-0.171028 5.99516 2.86931
-0.103601 8.87179 1.49347
-0.130649 12.9606 -0.18491
-0.153104 12.9305 -0.167357
-0.174467 9.34024 1.10175
-0.175816 9.41291 1.00693
-0.19729 9.98486 1.03317
-0.26963 6.62183 2.89558
-0.21571 8.84422 1.49836
-0.295898 6.68844 2.93437
-0.243011 10.0261 1.04203
-0.346298 6.76598 2.9482
-0.354122 12.2943 -0.150889
-0.355062 12.3023 -0.165444
-0.359957 12.2741 -0.172183
-0.371916 9.46493 1.0442
-0.440716 7.55507 2.52489
-0.467635 6.15095 2.87064
-0.505855 9.23016 1.22052
-0.50045 6.38101 2.87974
-0.587092 10.1003 1.0156
-0.654637 9.73621 1.0193
-0.667783 9.49974 1.04916
-0.767139 12.5543 -0.137306
-0.833133 8.76641 1.51972
-0.934761 9.32112 1.11757
-1.05119 9.1647 1.26645
-1.14309 9.31686 1.09495
-1.14275 8.83992 1.53804
-1.15615 8.45869 1.75098
-1.31975 10.131 0.862068
-1.28205 9.39986 1.08269
-1.54463 12.9483 -0.124962
-1.23293 8.72125 1.62318
-1.23811 8.58037 1.76244
-1.33624 8.41768 1.75884
-1.57383 9.39557 1.04353
-1.66443 9.73803 0.859465
-1.69814 9.53069 1.02685
-1.26353 6.32369 3.01204
4.02748 12.857 -0.212278
3.98911 12.4918 -0.228399
1.92321 5.55528 2.88979
2.70122 8.7191 1.48964
1.69335 6.83061 2.98848
2.03791 7.56854 2.43277
3.60565 12.6105 -0.210998
1.78506 6.0695 2.82044
3.5177 12.5894 -0.202536
3.4557 12.927 -0.180213
1.70898 5.45695 2.88121
1.64367 5.56155 2.88779
1.59683 6.39166 2.85938
1.62136 5.39502 2.86671
1.89532 7.75029 2.26691
3.18953 12.0524 -0.0963606
2.56983 9.24835 1.04809
1.77767 7.61551 2.35958
1.54947 5.98874 2.83661
1.54081 5.5002 2.88202
1.57036 7.51661 2.57488
1.44865 7.07471 2.79347
1.27536 6.79721 3.06068
2.77146 12.5852 -0.187712
1.51822 7.59762 2.40241
1.20788 6.7996 3.03191
1.77292 8.29104 1.82531
2.68297 12.6845 -0.204593
1.64366 8.21544 1.89453
1.21634 5.48474 2.889
1.20942 6.02805 2.84439
1.18891 5.59728 2.89671
1.19433 6.17696 2.84009
1.18286 7.1008 2.78654
1.27011 7.45867 2.58064
1.13784 5.75097 2.87262
2.38918 12.2448 -0.205801
0.988417 6.80096 3.07588
2.1761 12.2371 -0.211098
1.13253 7.61244 2.44378
0.959404 7.31074 2.64349
1.04456 7.8172 2.28491
1.75425 12.4594 -0.184313
0.669222 6.89455 3.05585
0.630844 6.24596 2.83398
1.2872 12.4892 -0.196129
0.516153 5.75877 2.87896
0.490755 5.78301 2.89237
0.389608 5.66359 2.88039
0.229679 5.69674 2.88372
0.508747 9.34101 1.05146
0.0425695 6.46058 2.83771
0.146454 8.5259 1.70766
-0.00584895 6.97657 2.90217
-0.0286325 6.3658 2.8503
0.142946 10.0019 1.0237
-0.07151 6.61917 2.88336
-0.169075 5.94943 2.86997
-0.0625129 12.5253 -0.164236
-0.0804682 12.279 -0.116534
-0.277804 12.2388 -0.140097
-0.348796 7.49774 2.49
-0.327711 12.1359 -0.0783818
-0.338904 12.2795 -0.102236
-0.349025 6.01887 2.9012
-0.419063 12.3559 -0.159247
-0.566775 12.1979 -0.127602
-0.829753 12.7236 -0.127567
-0.846629 12.647 -0.160081
-0.791499 10.1813 0.983185
-0.671458 6.74879 3.04063
-0.726647 6.98517 3.05689
-0.796642 7.8168 2.22539
-1.02015 9.07315 1.30639
-0.986628 7.52709 2.43985
-1.17931 8.90449 1.48074
-0.988182 5.98806 3.02767
-1.60223 12.5324 -0.209312
-1.72778 10.222 0.928095
2.88104 8.54662 1.56144
2.80453 8.64454 1.48493
1.95168 6.09225 2.81603
1.70096 6.80045 3.08622
1.77036 6.15491 2.82414
1.75161 6.02852 2.81547
1.56576 6.84045 3.05119
1.55064 6.82273 3.04237
1.53875 6.83479 3.06037
1.52712 6.81261 3.04739
3.16057 12.8016 -0.186776
1.78496 8.115 1.95287
1.28477 6.89819 2.92797
1.29447 7.28153 2.6926
1.28151 7.33745 2.65941
1.70436 8.44487 1.69898
2.48819 12.8057 -0.179703
1.86474 10.1099 1.01596
1.24882 7.91715 2.22758
0.909025 6.80768 3.06249
2.10741 12.7673 -0.193607
1.59902 12.5529 -0.19963
1.23404 10.1364 1.03921
0.678231 6.17004 2.85344
0.848676 8.22916 1.93617
0.973303 10.1153 1.05092
1.24113 12.2417 -0.179369
0.402664 6.12377 2.8439
0.403 6.12406 2.84289
0.391993 6.37315 2.83636
0.948606 12.7808 -0.171569
0.33859 6.43315 2.84552
-0.036298 6.14024 2.89278
-0.437057 9.4232 1.09344
-0.719956 9.41354 1.07987
-0.951552 7.52199 2.52889
-1.35727 9.32224 1.06476
-1.03368 6.22784 2.94557
-1.03524 6.02533 3.0531
-1.75784 10.2293 0.905817
1.86266 6.08558 2.81809
1.76701 6.28362 2.80723
1.73699 5.92786 2.83732
1.55587 6.86633 2.96112
1.55587 6.86633 2.96112
1.79522 7.46948 2.50448
1.60277 6.21169 2.80749
1.33764 6.2079 2.82036
1.86651 8.61664 1.58742
2.13537 10.013 0.964814
1.4674 8.41747 1.76437
2.14769 12.814 -0.199191
0.958689 6.4163 2.86653
0.959352 6.36329 2.86207
0.692829 6.10924 2.85476
0.619266 6.4145 2.84322
0.514307 5.99064 2.85974
0.514843 5.71473 2.87614
0.454131 5.85701 2.8921
0.382655 6.81108 3.02689
0.035051 8.25676 1.86783
-0.0520684 12.5446 -0.166985
-0.0624433 12.6289 -0.183696
-0.434426 12.5566 -0.158744
-0.633019 7.88066 2.17853
-0.751957 5.92327 2.9949
-0.857082 7.56524 2.47443
-1.27257 7.36821 2.61355
-1.4465 8.13242 2.07663
1.92355 6.28904 2.82978
1.90041 6.1668 2.80782
2.10606 7.61954 2.44084
2.09524 7.56498 2.44057
2.0755 7.73245 2.24467
1.70082 6.05387 2.82291
1.42847 6.78352 3.07331
1.40707 6.04819 2.82116
1.13801 6.04274 2.86062
1.09918 5.81175 2.87391
0.770043 5.61866 2.87944
0.801958 9.96361 1.03786
0.417254 5.72104 2.88637
0.289736 5.88963 2.8507
0.408004 10.1264 0.955764
0.0596169 7.12275 2.82453
0.282921 10.1139 1.05298
-0.0627761 9.97235 1.00688
-0.174524 5.91605 2.87509
-0.774113 9.4869 1.04747
1.96755 7.6798 2.37782
1.71885 7.57691 2.38827
1.47126 6.15316 2.81684
1.37792 6.21877 2.82085
1.04043 6.16388 2.85699
1.04684 6.11687 2.85667
1.07705 7.58509 2.46868
0.684731 5.61088 2.88203
0.593775 5.68059 2.89162
0.593775 5.68059 2.89162
0.31762 6.41945 2.84297
0.237038 6.36048 2.84078
0.19588 5.78285 2.91503
0.161105 5.69484 2.89279
-0.265062 6.43545 2.86605
-0.503079 6.43021 2.89105
-0.70509 7.76051 2.21737
-0.749969 8.14885 2.03537
2.12046 7.88832 2.11246
2.1282 7.88401 2.09947
1.63834 7.71843 2.35367
1.64397 7.71469 2.34428
1.69695 7.9277 2.08318
1.69608 7.97044 2.03762
1.23251 7.99572 2.16811
0.938259 5.96962 2.8677
0.8111 5.76314 2.87807
0.637138 5.99936 2.86472
0.275443 5.73089 2.87601
-0.314307 6.84543 2.97164
-0.908845 6.24856 2.87766
2.22653 7.59568 2.36674
1.16065 6.78683 3.04991
0.985052 6.84296 3.04395
1.53706 6.81508 3.08855
1.95895 7.74179 2.26329
-0.686192 7.22007 2.79764
-0.808331 6.99204 2.89858
1.89986 7.96644 2.05802
1.52873 7.76261 2.35016
2.51237 12.0535 -0.163083
1.03181 8.24251 1.92325
-0.208046 6.9368 2.8833
1.2604 8.05201 2.03338
-0.0106042 7.06216 2.86824
-0.276376 9.37333 1.0852
-0.741799 9.55998 1.03856
0.407483 5.78376 2.89539
-1.07294 12.5194 -0.135002
-1.28593 12.5076 -0.135128
-1.05548 6.81184 3.07099
2.88939 12.5108 -0.195201
-0.279784 8.45188 1.78001
2.60991 12.7407 -0.201836
-1.80746 9.57491 0.82607
-0.433483 7.89058 2.17916
-0.784105 7.19028 2.80827
-1.61569 12.6526 -0.115905
1.77429 12.2842 -0.192035
1.28332 12.3139 -0.18365
-0.74829 10.0132 0.99645
-1.07503 6.77291 3.12647
1.26767 12.5392 -0.201144
-0.337617 7.46375 2.54583
2.02399 12.0937 -0.160075
-0.680447 5.92129 2.93711
1.82377 8.28116 1.81467
4.14914 12.5331 -0.226084
2.20248 5.48303 2.91553
2.23181 6.05573 2.83558
4.02909 12.5985 -0.234936
3.97806 12.6277 -0.217441
2.30896 7.40093 2.54186
3.92236 12.6634 -0.232167
2.08405 5.61123 2.90005
3.66278 12.3494 -0.229045
3.64338 12.6867 -0.212526
2.44256 8.14207 1.88086
1.93529 6.31872 2.83325
3.55197 12.2673 -0.222464
1.89492 5.90289 2.85002
3.43011 12.7615 -0.198465
1.99634 7.48518 2.55695
2.76957 9.31642 0.992189
3.32677 12.5395 -0.193528
1.66944 6.83556 3.05906
3.29685 12.6291 -0.190425
1.75955 5.58948 2.87913
1.86105 7.34939 2.56624
1.73876 5.97092 2.85763
3.17015 12.423 -0.199118
2.18591 8.23271 1.80863
3.12638 12.3653 -0.188609
3.095 12.9855 -0.196908
1.62769 6.52158 2.93965
3.07781 12.809 -0.188507
1.6871 7.48774 2.5785
1.68537 7.4941 2.55288
2.65108 12.7641 -0.211186
1.32243 5.99154 2.8496
1.85585 9.30901 1.08436
1.20797 7.06715 2.80611
1.19927 7.09547 2.78991
1.20225 5.76391 2.89824
2.03649 12.6081 -0.19505
1.90651 12.9436 -0.193966
1.11832 7.72356 2.36394
0.902844 6.7583 3.03525
0.970212 5.74002 2.87449
1.75609 12.7154 -0.208378
0.926807 6.11221 2.85311
1.2415 10.165 1.01833
0.815012 6.24266 2.87794
0.803782 6.32259 2.86602
1.3737 12.2941 -0.187163
0.63387 6.86532 3.068
1.1546 11.3372 0.349193
1.23615 12.7012 -0.206277
0.620443 5.89231 2.90346
0.620087 5.74973 2.88972
0.597366 6.33365 2.84208
0.963998 12.6866 -0.181428
0.779682 9.1768 1.18946
0.709924 8.80446 1.47585
0.720033 9.07641 1.25111
0.431274 6.14763 2.85322
0.421 6.10442 2.84151
0.328421 6.13265 2.85919
0.489404 10.0423 1.04385
0.444908 10.8967 0.66199
0.386211 9.21027 1.18258
0.360199 12.9627 -0.164369
0.348867 12.5953 -0.142074
0.274513 12.9256 -0.16742
0.222951 8.76746 1.47736
0.0770942 12.6053 -0.175142
0.0216892 6.93593 2.85871
0.000701676 8.93445 1.36437
-0.00691928 9.07918 1.29473
-0.058495 12.1822 -0.143606
-0.0831948 9.26909 1.14988
-0.14244 6.56317 2.88332
-0.246642 12.5762 -0.1369
-0.194486 6.15717 2.8488
-0.506675 9.23405 1.15985
-0.614704 10.1961 0.985917
-0.684364 8.2083 1.86844
-0.997442 9.56849 0.993078
-1.006 9.51457 0.93747
-1.31631 9.16107 1.3151
-1.2408 8.48645 1.65866
4.44166 12.2738 -0.183184
4.38066 12.3757 -0.233584
4.37062 12.3652 -0.215993
2.28315 6.27696 2.79581
3.34872 9.11487 1.07268
2.13584 6.81856 2.9456
4.05383 12.425 -0.226141
4.02615 12.8587 -0.209064
2.19269 6.27369 2.80709
3.92391 12.7452 -0.214869
3.83325 12.3868 -0.22194
3.82441 12.3772 -0.204923
2.8017 8.66627 1.54809
2.29112 7.58285 2.38599
2.68021 8.67606 1.55756
2.76458 8.75679 1.39006
2.32191 7.944 2.04743
2.00512 7.49426 2.51185
1.84889 6.28811 2.81795
3.31348 12.5904 -0.196861
3.31341 12.5894 -0.196455
1.80459 6.30158 2.82496
1.80388 6.0734 2.81512
1.60032 6.44956 2.88889
1.45253 6.80581 3.02827
1.65625 7.63863 2.45018
2.741 12.7816 -0.203438
1.39284 6.87041 2.98343
1.60104 7.64039 2.46239
1.34515 6.79922 3.06212
1.3758 6.11135 2.81716
1.25802 6.48776 2.90584
1.26148 7.32878 2.6548
2.25848 12.226 -0.205707
1.20354 5.98131 2.85563
1.12411 7.62209 2.46878
1.1403 7.75925 2.35848
0.943942 6.33345 2.87519
0.953038 5.73288 2.87791
0.770883 6.74585 3.03308
0.770551 5.94109 2.88787
0.673195 6.51688 2.87072
0.91906 10.1224 1.05109
0.913545 9.22579 1.17195
0.59469 7.43144 2.51308
1.01525 12.5709 -0.197692
0.450804 6.54121 2.86218
0.396647 6.92482 2.99884
0.396647 6.92482 2.99884
0.709162 12.9507 -0.184953
0.337632 5.81698 2.91837
0.309921 7.197 2.77301
0.251833 6.91092 2.98197
0.248738 6.94944 2.95854
0.366865 9.45451 1.06326
0.322989 12.1626 -0.177803
0.129119 6.34933 2.83902
0.0572236 7.97857 2.0649
-0.0172176 6.43478 2.84404
-0.0246465 9.932 1.02625
-0.348477 12.3947 -0.149103
-0.428319 7.63372 2.31258
-0.737517 9.5017 0.985321
-0.881002 10.1235 0.961163
-0.93411 9.34969 1.04135
-0.674761 5.99448 2.95274
-1.02629 9.29224 1.10787
-1.06191 9.41218 0.989035
-1.02106 8.82663 1.55724
-1.2455 9.25691 1.12463
4.39334 12.4122 -0.218513
2.07525 6.62361 3.00576
2.1854 6.94378 2.79952
1.90292 6.75315 3.07442
1.96533 6.23145 2.80506
1.6509 6.79314 3.02562
1.69137 6.16285 2.80775
1.69137 6.16285 2.80775
2.18911 8.35205 1.70807
3.02191 12.5304 -0.194442
2.12107 8.26778 1.78602
2.78259 12.9179 -0.185886
1.43273 5.98488 2.83067
2.57884 12.3984 -0.221231
2.45602 12.6911 -0.242097
1.41954 7.73816 2.43728
1.29096 5.60345 2.89299
1.6477 8.38783 1.79364
1.4343 7.89185 2.25977
1.11797 7.75605 2.33606
1.41803 10.0097 1.039
0.92618 6.01327 2.87369
1.60126 12.2602 -0.167992
1.25857 10.0562 1.03778
0.760401 7.6068 2.40001
0.747513 7.68053 2.36435
0.653072 6.17941 2.84488
0.604977 5.78583 2.88194
0.563741 6.50542 2.85399
0.47967 9.15152 1.19797
0.201628 12.46 -0.163272
-0.370499 12.6027 -0.15799
-0.488441 6.60842 2.92179
-0.785819 9.50037 1.01469
-0.884243 9.03311 1.33
2.32966 7.68101 2.24364
2.01247 5.50457 2.88987
1.64348 6.79292 3.0783
2.52034 9.2016 1.10544
1.52002 6.15492 2.81048
2.72898 12.4581 -0.19176
1.27752 6.00346 2.83339
0.917216 6.70258 3.02153
0.888075 5.84701 2.8798
0.681576 5.9766 2.8695
1.01809 9.94667 1.03003
0.610928 6.09743 2.85348
1.0845 12.6821 -0.193903
0.524272 6.28839 2.84998
0.719827 10.112 1.03348
0.847023 12.8644 -0.158079
0.150073 6.88355 2.93868
0.042464 7.16854 2.68074
0.0249428 7.13482 2.65751
2.22816 6.25655 2.81296
2.03323 6.09067 2.80603
1.93545 6.21409 2.81746
1.7583 6.78999 3.07225
2.03904 7.5632 2.46155
2.56794 8.75177 1.42512
1.84953 5.88794 2.83308
1.81022 6.12011 2.81791
1.81022 6.12011 2.81791
2.07933 7.76895 2.20768
1.97584 7.6232 2.39872
1.74576 7.44098 2.56316
1.49778 6.76107 3.08825
1.86358 8.29202 1.82209
1.42454 6.20161 2.81599
1.42466 6.20218 2.81622
1.13305 6.1722 2.83443
1.23769 9.97913 1.03823
1.26965 9.98731 0.973446
0.711956 5.87755 2.90326
0.378376 6.14193 2.83464
-0.536775 10.1159 0.936489
-0.69214 7.10827 2.86623
-1.01182 7.49974 2.39991
2.14934 6.25707 2.80752
1.83622 6.76892 3.09228
2.22998 7.8869 2.04351
1.73977 6.07363 2.8104
1.64688 6.09157 2.81864
1.38879 6.13385 2.81395
1.29315 6.21482 2.82215
1.22239 6.05617 2.84254
1.22239 6.05617 2.84254
1.27029 7.74395 2.37219
0.237038 6.36048 2.84078
2.12683 5.99814 2.8387
1.90227 6.77434 3.03439
-0.687853 6.15676 2.92256
1.27823 7.62748 2.43143
1.27823 7.62748 2.43143
-1.0105 12.1964 -0.0540851
-0.813922 7.62954 2.38603
3.2463 12.2558 -0.165203
-1.01036 12.5538 -0.149855
0.753589 6.28413 2.87466
1.69367 8.43839 1.6557
0.444782 7.07518 2.92372
0.0359892 10.1209 1.02351
-0.081419 6.17577 2.86
1.18248 7.82622 2.29141
-1.10552 9.36027 1.17026
1.91831 9.36746 1.07694
-1.41722 12.4252 -0.127043
1.31752 12.6322 -0.201436
2.20054 12.8115 -0.200798
2.19805 12.8079 -0.196298
0.456054 12.2341 -0.171548
0.760003 12.9253 -0.183172
2.02585 12.2825 -0.201994
0.809218 10.1162 1.02898
0.156857 10.1111 1.02248
1.27816 7.56192 2.47546
-0.692096 7.18807 2.72206
4.05826 12.4967 -0.220311
4.06732 12.3555 -0.230705
2.89479 12.3093 -0.196047
2.6187 12.5077 -0.201135
2.53535 12.6186 -0.243375
2.40293 12.9993 -0.176857
1.6104 7.67454 2.43085
1.47761 6.1833 2.81783
1.0614 7.42916 2.58279
1.02175 6.40659 2.87176
0.834325 7.62773 2.44773
0.803614 6.23503 2.87299
1.04156 12.701 -0.144952
0.638304 9.39666 1.0504
0.439453 12.9344 -0.168704
0.449869 9.11764 1.25315
0.368055 9.13398 1.19579
0.0890879 8.41693 1.72706
-0.096605 9.41646 1.0072
4.73084 12.363 -0.19927
4.64764 12.9412 -0.207793
4.29545 12.1251 -0.139977
2.5484 6.91944 2.82912
4.26586 12.488 -0.224256
4.18585 12.0952 -0.135219
4.1497 12.7499 -0.19959
3.52296 9.42813 0.959596
4.10444 12.9001 -0.215772
2.4089 6.53709 2.90177
4.13097 12.4458 -0.242209
3.91062 12.3674 -0.22338
2.30425 6.44419 2.8753
3.18472 10.1662 1.01207
3.22013 10.1593 0.914454
3.17447 10.14 0.995712
2.25085 5.8038 2.85364
2.99202 10.0311 1.04589
2.23726 7.46635 2.51839
3.37055 12.1662 -0.196762
3.13046 12.5824 -0.099035
3.01079 12.1519 -0.163317
2.34679 8.71981 1.52569
2.32445 8.68596 1.56923
1.4427 6.4099 2.86563
2.28534 12.5091 -0.211173
2.00574 12.4508 -0.220901
1.29202 6.3214 2.82284
1.94407 12.7708 -0.21934
1.21719 7.70499 2.41553
1.69298 12.1885 -0.212162
1.6614 12.5587 -0.191686
1.55161 12.6625 -0.21793
1.30135 9.30936 1.08953
1.47961 12.1203 -0.183598
1.4575 12.4557 -0.198486
1.42243 12.5308 -0.202352
0.914035 7.52998 2.50943
1.24155 12.1291 -0.190328
0.873221 5.97277 2.86879
0.782746 5.8331 2.88792
0.924109 9.95294 1.0569
0.704993 7.42011 2.46834
0.67354 10.174 0.959912
0.661319 10.0279 1.05629
0.645371 12.2719 -0.19178
0.576184 8.6563 1.57074
0.478993 6.81014 3.01898
0.469249 6.88346 3.04887
0.448702 6.62782 2.91389
0.42102 9.22021 1.13226
0.404357 9.36188 1.03458
0.384078 9.1195 1.20516
0.378537 6.06509 2.88098
0.240848 6.23968 2.87678
0.15199 8.24804 1.85316
-0.0133196 12.8475 -0.170363
0.130493 7.15781 2.73394
0.0586948 8.31568 1.84014
-0.0472564 9.35574 1.04787
-0.0662089 9.27698 1.10992
-0.326583 12.6185 0.150636
-0.272077 9.20308 1.14653
-0.975264 9.86014 0.899546
3.61702 8.83722 1.32397
3.4447 8.69771 1.50914
4.41365 12.8821 -0.240867
2.62526 6.11377 2.81539
4.30059 12.8738 -0.213022
4.25571 12.7383 -0.222342
3.29492 8.79595 1.45934
3.4973 10.0715 1.00909
2.31771 6.78343 3.04674
2.4434 6.90044 2.83773
2.5798 7.36443 2.50806
2.19954 6.72912 2.99346
2.43257 7.47211 2.4623
2.79773 8.51483 1.59396
2.17946 6.92277 2.81311
2.79652 8.69496 1.51277
3.61582 12.3503 -0.27182
3.57819 12.4805 -0.224563
2.63762 8.72246 1.49648
2.1099 7.25183 2.61793
2.0213 6.26527 2.8125
3.19177 12.2406 -0.171811
1.75238 6.12418 2.82117
1.53259 6.3805 2.85362
1.86327 8.5671 1.66535
2.3958 12.2598 -0.219694
2.36145 12.1828 -0.187326
1.44631 5.93446 2.81921
1.66477 8.34574 1.76573
1.39136 7.74905 2.43156
1.18514 6.12535 2.83968
1.50607 10.1698 1.01938
1.4113 10.1217 1.043
1.02683 8.15027 2.03266
0.665598 6.45642 2.846
0.766156 9.3725 1.05408
0.643282 5.93104 2.8881
0.536238 6.60203 2.8993
0.4639 6.91071 3.03372
0.371605 6.37997 2.83914
0.34384 9.43837 1.03601
0.142811 10.1193 0.877584
0.143459 10.0522 1.01921
0.0708647 10.1519 1.01646
0.0956885 8.37932 1.7583
0.0575525 7.98043 2.07146
-0.297282 9.38429 1.0065
-0.258928 8.80136 1.444
-0.408866 7.67819 2.22975
3.5628 8.85902 1.35021
3.51914 8.86988 1.35343
4.31071 12.3722 -0.218592
2.37854 6.79783 3.04882
4.07051 12.7466 -0.222068
2.45773 6.11621 2.80898
2.4608 6.11277 2.80392
2.4585 6.1943 2.79457
2.45513 6.14244 2.80336
3.98021 12.7244 -0.227603
3.96455 12.5653 -0.236222
3.61094 12.605 -0.220356
2.01946 6.29403 2.812
2.14397 7.51579 2.46466
2.01004 6.07293 2.8214
2.56764 10.0271 0.965465
2.7349 12.604 -0.205708
2.69284 12.9474 -0.190517
2.2693 10.0064 1.06373
2.3119 12.5484 -0.226823
2.29458 12.6224 -0.229657
2.28923 12.1853 -0.210202
1.78842 9.2964 1.12419
1.18183 7.9297 2.20864
1.09438 7.49692 2.53817
1.45236 12.7657 -0.191766
0.862521 6.07603 2.85825
1.00032 12.7523 -0.125476
0.47644 12.5887 -0.217122
0.300421 6.46451 2.84223
0.251178 9.37305 1.06892
0.232848 10.0129 0.958547
0.09567 6.41508 2.85243
-0.452741 9.99803 0.929793
-0.498418 7.55316 2.36196
-0.946009 9.58282 1.00367
-0.486721 6.96074 2.96775
3.44414 8.78038 1.4842
3.3251 8.66205 1.55349
3.27625 8.67067 1.55243
2.61349 7.20878 2.62698
2.55017 7.22488 2.64525
2.61649 7.33601 2.50805
2.28847 6.68641 2.98729
2.15597 6.74894 3.03742
2.29058 6.22166 2.77667
2.14301 6.19861 2.80795
2.54761 8.62147 1.59798
2.47693 9.37352 1.10327
1.77992 6.20388 2.79035
1.77992 6.20388 2.79035
2.7888 12.762 -0.194463
1.68962 6.20527 2.80629
1.59921 6.27314 2.80843
1.64978 7.79934 2.24117
1.41034 7.80978 2.41867
1.39105 7.87928 2.3305
1.48882 12.6972 -0.250317
1.15256 9.98187 0.993302
0.852357 8.17375 1.99971
0.919167 12.8544 -0.182
0.839507 10.0288 0.961631
0.71447 8.02813 2.01834
0.754726 9.93438 1.04475
-0.312852 10.1252 0.98858
-0.764342 12.4301 -0.154033
3.40363 8.79495 1.44577
2.57545 6.1553 2.8045
3.34396 8.76713 1.4512
3.34372 8.76886 1.45027
2.56988 6.20347 2.8021
3.27307 8.71757 1.48583
2.32275 6.18757 2.80491
2.12448 6.74924 3.02393
2.21888 6.21576 2.8225
2.0694 6.18705 2.80135
1.98935 6.10295 2.80385
1.93495 6.21497 2.81855
1.88908 6.2432 2.80648
1.85278 6.22298 2.80254
1.33859 6.24105 2.81567
1.12227 7.51895 2.53412
0.546476 10.1177 1.02726
-0.486836 10.1433 0.92827
2.3424 6.83473 3.08153
2.41459 6.13512 2.79829
2.28655 6.06665 2.84095
1.34545 6.82542 3.04896
1.34545 6.82542 3.04896
1.38157 6.20274 2.80173
0.949275 6.1666 2.85263
0.583571 7.42267 2.50601
2.41445 7.36877 2.55125
1.26906 7.55899 2.51369
1.30798 12.4041 -0.182418
0.66548 5.9158 2.88751
0.459003 6.06701 2.86106
1.77226 7.95044 2.09524
0.799562 6.26002 2.87495
0.258348 7.18975 2.74065
0.182464 6.07114 2.86358
1.06858 6.74658 3.07847
4.22661 12.4363 -0.240318
2.3042 12.3895 -0.199861
1.43014 12.4987 -0.207485
1.05644 6.27039 2.87472
0.449771 6.45675 2.8376
0.0849121 7.13814 2.79507
0.209818 12.5341 -0.179183
0.0949388 8.45834 1.72772
0.236301 6.90939 2.96121
-0.27436 6.66329 2.91772
0.540562 6.04185 2.85919
0.895219 9.9608 1.03083
0.696089 8.78547 1.47947
0.0842122 8.62826 1.62353
-0.0106366 12.561 -0.172024
0.473918 12.5006 -0.179691
0.245571 7.7807 2.18355
1.48619 12.4199 -0.195304
0.420125 9.46674 1.08298
-0.260709 9.48415 1.07178
1.7051 12.4391 -0.174971
2.24496 12.642 -0.198047
-0.931483 10.0832 0.903303
2.88502 12.2856 -0.197866
2.65968 12.2967 -0.2102
-0.397589 7.31544 2.60824
3.59897 12.0986 -0.206198
-4.79814 1.19073 0.220118
-4.8496 2.11305 0.356401
-6.87963 5.78859 0.486386
-7.35443 0.996543 -0.273302
-7.21423 3.01602 0.420341
-8.06969 0.931614 -0.304178
-8.11663 1.39525 -0.305918
1.36324 8.13793 1.96458
-0.803321 10.1228 0.999841
-1.21199 9.14091 1.33228
-2.86368 7.56719 2.41831
-0.500731 10.0966 1.00899
-7.6548 6.62786 0.499086
-0.5887 9.36485 1.1313
-9.49616 10.8292 -0.0219248
-9.09167 6.18615 0.00485542
-9.11664 8.08973 -0.219492
-6.80456 8.14968 0.589706
-9.7658 10.2462 -0.126836
-7.55629 2.99112 0.489001
-9.60936 9.91435 -0.222028
-9.57375 9.67001 -0.225393
-5.64904 3.96396 1.26641
-8.95812 3.12848 0.128226
1.2499 12.8489 -0.174966
0.138717 5.98904 2.87114
-4.20302 12.4649 -0.1564
-0.61452 9.06764 1.36392
-5.90799 4.9908 1.3625
-2.59801 12.4378 -0.0349725
-9.18399 3.06823 0.0458585
-8.98551 9.33762 -0.207193
0.0150659 5.74099 2.87524
-9.34453 6.23623 -0.156374
-4.27834 6.14476 2.28136
-1.56494 9.4331 1.08393
-6.7676 6.63784 0.524897
-7.83594 2.80567 0.435777
-2.87407 5.63521 2.66902
-1.53905 8.28351 1.94873
-9.54508 8.94158 -0.290655
-9.58575 6.07483 -0.162646
-0.04019 12.3013 -0.127183
-9.34504 5.40943 0.0295125
-5.50596 11.7522 -0.115905
0.63525 12.5008 -0.200329
-4.70191 6.86745 1.78424
-7.07277 11.2152 -0.217257
-7.67051 3.38913 0.417558
-7.91274 3.86334 0.463982
-7.4444 10.7048 -0.166983
-9.52966 8.67638 -0.301357
2.00444 12.1922 -0.170256
-7.96679 4.47791 0.528731
-7.58072 11.705 -0.150212
-6.14223 7.68894 0.629978
-9.29418 5.59882 -0.00159025
-4.38906 12.313 -0.15105
-3.66868 12.8361 -0.142317
-9.42637 6.78891 -0.205235
-4.72074 12.1676 -0.14821
-5.7747 6.28755 1.13404
-9.63759 10.5145 -0.107628
-9.62825 7.43584 -0.218649
-9.14357 11.1161 -0.0879331
-4.64847 6.23539 2.00463
-5.71571 6.09938 1.26256
0.148134 12.3965 -0.176805
-5.661 12.6717 -0.182987
-3.83439 6.05339 2.6031
-8.96531 7.10257 -0.0880171
-9.22029 4.85066 0.0920896
-8.91353 8.65166 -0.200679
-8.46116 9.88258 -0.212902
-9.20954 3.62526 0.126696
-5.84634 6.82636 1.04679
-9.79866 10.1438 -0.119572
-7.09208 7.86555 0.567854
0.791784 12.6542 -0.193485
-5.95662 7.92202 0.628597
-6.11843 11.6502 -0.191733
-5.66193 7.24557 1.08118
-8.49871 9.53647 -0.197059
-8.96636 10.0417 -0.210971
-5.26598 9.55932 0.624033
-8.7654 10.3257 -0.202084
-5.12223 8.16522 1.01006
-9.14118 8.26078 -0.226211
-7.964 11.2548 -0.202672
-8.53289 10.6323 -0.193812
-8.7073 2.80252 0.127118
-9.26889 9.8098 -0.176756
-5.62047 5.59886 1.57451
-6.32118 2.4305 0.41109
-8.60436 2.73194 0.153145
-7.37707 9.99377 -0.116176
-8.88571 10.7051 -0.185317
-9.20238 10.0943 -0.233526
-5.85266 5.69425 1.30432
-9.03854 6.55811 -0.0313644
-8.11381 3.57166 0.496625
-9.19155 9.54798 -0.21169
-5.56977 5.81526 1.41757
-4.96065 12.8776 -0.17926
-4.07624 12.6004 -0.152597
-8.37137 9.32766 -0.195847
-8.64059 10.528 -0.172959
-5.64477 6.33338 1.25935
-5.45336 6.4578 1.39588
-5.36598 5.07207 1.70068
-4.69826 7.01047 1.72325
-4.38419 12.8324 -0.155814
-9.32867 6.6252 -0.217006
-9.33596 7.86293 -0.239071
-9.23762 3.50634 0.0446204
-8.34428 6.12985 0.509606
-9.32067 6.27017 -0.151353
-6.02199 11.629 -0.174357
-2.13102 12.5365 -0.137073
-0.705387 12.6524 -0.154416
-2.29498 8.26278 1.8658
-0.0704094 12.3794 -0.1556
-0.683291 8.21847 1.98851
1.8473 12.4778 -0.188378
-0.515055 7.41817 2.63736
0.426 5.67191 2.89394
-7.08916 3.95693 0.430922
-4.04372 1.87104 0.372122
-4.15991 1.90549 0.344192
-3.68615 12.7136 -0.136369
-3.68331 7.54481 2.05717
-4.93349 12.6845 -0.164011
-4.27991 12.9139 -0.107025
-8.33295 8.96499 -0.0235476
-6.95171 3.8282 0.433764
-6.16834 8.52662 0.639406
-3.19093 9.55563 0.829347
-4.76874 12.7632 -0.144667
-5.19963 5.55745 1.83237
-5.86884 0.514381 -0.243915
-6.07768 6.11343 0.984994
-5.72397 8.118 0.756033
-6.09619 1.75514 0.356839
-5.59961 3.64037 0.849259
-6.90564 3.52952 0.400033
-6.6694 3.40044 0.349712
-6.99715 2.74298 0.349489
-2.30546 12.6848 -0.14452
-1.76423 10.0402 0.925324
-2.37198 8.78067 1.50403
-1.53627 3.02421 1.88994
-0.812408 12.4119 -0.134831
-4.3526 7.3523 1.80715
-1.68966 8.23908 1.85783
-2.99238 12.9011 -0.134005
-5.97111 7.69457 0.763693
-5.53119 11.8593 -0.152791
-5.6134 12.1789 -0.173289
-6.07102 6.11546 1.00274
-6.98271 11.0726 -0.198556
-5.17871 12.0318 -0.176692
-7.34485 10.4587 -0.193907
-7.21283 10.8385 -0.189081
-5.83786 12.1899 -0.0795822
-7.39945 10.172 -0.157736
-2.07887 12.8943 -0.120634
-2.16838 5.90643 2.81749
-6.16267 8.52558 0.601467
-3.83233 10.0065 0.831462
-1.66571 8.79302 1.46599
-6.90238 2.55202 0.355012
-6.61384 8.77568 0.566619
-7.09683 10.7374 -0.206643
-2.47016 10.1505 0.878216
-6.15498 8.59341 0.599343
-5.12714 7.74397 1.17766
-5.61422 12.2806 -0.171496
-4.63664 9.79868 0.755152
-8.18694 1.04706 -0.298332
-4.01227 12.5718 -0.135348
-4.67281 12.4654 -0.166111
-7.43275 9.57095 0.0362622
-3.69089 12.5951 -0.0212288
-3.66013 12.4696 -0.120151
-6.62888 8.69553 0.599808
-3.042 12.9119 -0.110522
-2.99437 6.80308 2.85437
-8.38168 4.48182 0.677576
-4.639 12.4238 -0.146863
-3.16018 12.5731 -0.128593
-5.46848 12.3934 -0.183918
-3.46023 12.6266 -0.131536
-4.11415 12.9056 -0.131226
-6.44446 8.18212 0.607941
-1.5358 6.83715 3.08258
-0.399191 10.0635 1.01071
-6.91542 5.78287 0.404744
-3.55942 6.33852 2.67296
-6.12691 4.38205 1.06849
-4.95947 7.25045 1.47419
-6.1208 12.8945 -0.18985
-5.70399 12.4936 -0.190166
-8.62288 8.6052 -0.178452
-4.69198 2.07275 0.328671
-5.59022 12.1445 -0.180562
-6.13906 4.48599 1.09762
-7.17016 3.06304 0.385863
-5.37047 10.1487 0.743468
-7.11617 9.14062 0.404653
-5.38855 7.03799 1.31509
-5.24556 12.4219 -0.0958638
-7.78039 10.8147 -0.194256
-5.46453 12.2889 -0.19521
-4.22909 12.6011 -0.13233
-4.62869 12.7807 -0.158679
-5.78845 12.8167 -0.178419
-4.34554 12.4188 -0.0996556
-4.17322 5.05281 2.13122
-8.40897 4.1327 0.445305
-9.14116 7.74663 -0.209948
-9.45528 7.07872 -0.152769
-5.52517 2.16732 0.426245
-7.48297 11.8603 -0.192225
-1.76333 8.94147 1.36856
-4.47563 7.396 1.69522
-6.57051 5.08986 0.628085
-5.4076 7.8788 0.987483
